-0.18872145713276145 1.272863482765662 0.17623462884684093
0.185343495029201 1.2858528706193106 0.21531927996195965
0.06955823876520859 1.3414819763932386 0.3048502141428062
0.0017657634198076089 1.340680061221888 0.36142991672980473
-0.06428430160380394 1.3374953002991092 0.3868886572287054
-0.10775477224605501 1.323310907772779 0.35011710662606643
-0.16333706037001922 1.3118503812433602 0.3982363456373139
-0.15164064560338253 1.2975358278693354 0.4348917401171283
0.1490551297800526 1.3067172671259253 0.405222177922796
-0.2486556322177096 1.2634695170643486 0.3701046093021834
-0.3287942516646646 1.2126853575763816 0.2995168125406409
-0.35867282418701474 1.2083270584987087 0.2868344301051269
-0.38856932741575556 1.1584229382830729 0.2922254999867158
-0.40380102648946925 1.1224984044961472 0.26041696869331465
-0.45946438569170756 1.0395008804334933 0.28301208643719955
-0.4367475768269342 0.9836270705876617 0.3126745141034417
-0.44286144424704876 0.9445858545782531 0.3411768363150528
-0.4352145153907329 0.8656366468458468 0.3642440013427959
-0.4224549126146175 0.8904980466140628 0.3887830954404514
-0.3928340239707373 0.8440161504706073 0.4261962784654763
-0.36309842910503676 0.7335348045274104 0.456278035606245
-0.3124260899568755 0.6177555194163304 0.4018226948030459
-0.32774914166595126 0.6257472386414348 0.3933548752672702
-0.3078552848003939 0.7329434259275389 0.5432449027485882
-0.3001371664887378 0.7926550720541399 0.5824259468260236
0.218838386016722 1.2438945221103537 0.4550389533482611
0.2544156302642108 1.2042892007469446 0.4526414555088456
0.30231585821670415 1.2244103114804648 0.38279342960763296
0.25785528075984376 1.2607781319775033 0.35514641793275614
0.3497624219408376 1.1698985496374328 0.3415125703423121
0.20673829966794166 1.1560869392753261 0.5240462127683838
0.2251196735224943 1.0943145464530128 0.5506463050849646
0.16609222866272938 1.0660503687949814 0.5944007834003622
0.09959540393332406 1.0335655447214398 0.6167834643822907
0.08972510822006874 1.002942813987341 0.6098151732192977
0.10067777448874896 0.9426340281033734 0.6346085356334499
0.21575498751799865 0.9629356156535273 0.6052400575221359
0.22006670707502185 0.9199228110333705 0.6102888263108108
0.2546048618561645 0.8606957347941853 0.5557943129606651
0.3053107835051161 0.795726579624471 0.519361593781277
0.2917934297123588 0.8054156475040719 0.49237449091610475
0.07011384252885744 1.151622103426436 0.5858882650092485
-0.029667143152642295 0.798646195802248 0.6874275550782356
-0.06241956932653579 0.7580975234547929 0.7204094872791029
-0.024895360899125807 0.8589594688143503 0.6888856926826935
-0.06981476910842699 0.8383448243204213 0.6694473054062957
-0.1329723085721266 0.8288165421239783 0.6681145842336954
-0.02220931002200688 0.7071566634069701 0.7584873750385429
-0.030611713617405556 0.6468919315670913 0.7755028905497645
0.005068473812230634 0.6339372952950659 0.7830660443977341
-0.06768380074771829 0.6352007858350955 0.7647557523660005
0.05204634132751229 0.6440864467486558 0.783663151473048
0.06194114447251575 0.6195683465386854 0.7733815690634491
-0.02952032104805702 0.5671284725561274 0.7375391652869154
-0.0030721044379311557 0.5587578102826467 0.7440260412788144
-0.20862555303568037 0.8343110026280288 0.6484793016404207
-0.19725620759049367 0.9211986719650817 0.6100012340406591
-0.2754104502738739 0.9133762261038613 0.5902831905787957
-0.3093716333563372 0.9116806107245985 0.5288197850574917
-0.30938935349948316 0.9108511770639882 0.5288378579640305
-0.35793406018680196 0.9729270604140389 0.46173742379385696
-0.10986909953887312 0.9613658736500008 0.6344990496240519
0.06275497247651654 0.7674224388586038 0.6991292468550507
-0.2618376236414778 1.021879624685606 0.5395917506469954
0.3683797133862232 0.8026106055403144 0.4243896638210902
0.3988726484112197 0.7508455188515669 0.43309080741376316
0.4176185104519855 0.845930886994663 0.4060947579948033
0.42942026122716204 0.9097940243236502 0.3402049392299563
0.42090311759371235 0.928772447785613 0.3343222366284603
0.42908929730085943 0.966226671101565 0.3242570703971638
0.4052477645204786 1.044961631349912 0.29761178154781354
-0.16760771968447202 1.0757772937726404 0.5542029223138838
-0.1299886261667602 1.0922528532149989 0.5794116507675899
0.1607276909365487 0.8467638387154066 0.6537378891867067
0.20396586789975024 0.8217551341991449 0.6466038609804035
0.20966565699330184 0.8224990540100086 0.6502013821779957
0.1935097363066668 0.8088545889483889 0.6416312259096192
0.1999401425094327 0.7451096058956623 0.6166458214378702
0.1882450559616169 0.7023395914970414 0.6210886342478845
0.173651495070458 0.6927551129189761 0.6254208890541355
0.1743196871464336 0.5943969777853083 0.6097381314946688
0.17459228511327352 0.5910627290910357 0.6147683341235943
0.12568692997425157 0.5769690972658785 0.6900139989020873
0.006077349381647501 1.3001648889910766 0.47759521315295406
-0.00027376979611104524 1.2195580115325346 0.5401299338273086
0.08816767395154286 0.4911796132716218 0.5885291514048376
0.031623051685187864 0.47721709607267926 0.5555977556279333
-0.3292870137105871 1.0777223478801459 0.43843108595625013
0.3121340045327339 0.6856225029550009 0.46806433954299986
0.3168515589927272 0.6802529448260175 0.47076754968251283
0.3319270042632103 0.6407550002743168 0.4496031558426743
0.34181015162058714 0.6327873885015689 0.44038358870689576
0.3129709402899675 0.5384302070686163 0.38379970984986245
0.33863598181694365 0.5144825242834936 0.2073901363779429
0.27782117383485033 0.5067786525609935 0.15404196542827808
0.22938385684838136 0.43840338735042766 0.17389931196314357
-0.2106200369215625 0.7026422513140749 0.5961605282200699
0.26019819032269187 0.49988821722455024 0.004039159707490025
0.2574668145677846 0.4868378439236666 -0.10746666361710155
0.2916711666525764 0.393670304531616 -0.17067017459763822
0.2212777586754946 0.39904702549325693 -0.19739742940388577
0.15236503812827085 0.4211595998475931 -0.20062977311521135
0.3551527061864414 0.3587228601275383 -0.142919739476697
0.35742558319550843 0.3686174111064191 -0.12127150416681332
0.372869017196934 0.3091581125892338 -0.18225838229430225
0.402358387849423 0.23291222773575698 -0.15919382008666655
0.41642683149233206 0.20827531130513893 -0.16198803366388753
0.043094552976875145 0.4616721214497432 -0.16924698202198596
0.0951341976474005 0.5299325961933817 -0.15339838716255141
0.38208092949420247 0.9962834382860951 0.429709655541785
-0.1208237658968121 0.51458553050036 0.5536324626521976
-0.12214444833609217 0.5153633621592144 0.5555044835322033
0.1665575356614155 0.502400075257153 0.45923868933642087
-0.4662714926087097 0.8697974498156551 0.21177060272066583
-0.45730310996973467 0.7393548536831558 0.21134987522378523
-0.4482767904719791 0.7246253659777298 0.17105997183342936
-0.4489396731231607 0.6613545071449448 0.15720298734052163
-0.40145722418585594 0.6254493841728817 0.20098689444192397
-0.3356019636913976 0.5508105655371751 0.18959002723324714
-0.3064262402380319 0.5272977055799051 0.26181939480893934
-0.28636377515854694 0.5255714259591953 0.28164657899297874
-0.35721823922347623 0.5783675820603209 0.10389787497406933
-0.38701046447764564 0.6381541179526277 0.011691569186175421
-0.32119106930227015 0.5737117693296356 -0.024363024968569347
-0.2673201635870115 0.5806346644604901 -0.11183071821941937
-0.33546943504637905 0.6545198018601891 -0.12668535921269286
-0.1945285001098508 0.5124684643813009 -0.1296629441217273
-0.2518680392055462 0.4982720460427306 0.038665614270169346
-0.2632431686388079 0.4499668240779391 0.007789012383349506
-0.23316886766115774 0.42641425636801994 0.21334354515980591
-0.18411365903796262 0.3652034105873 0.2570227757577379
-0.20995744197561916 0.4377477855449728 0.35206909395217845
-0.15314927230671893 0.4108416417816253 0.3571685719332534
-0.0925890922596515 0.5219637590677639 -0.14695668670478745
-0.12480345179000363 0.5989016755084933 -0.22175247287132582
-0.08305161196597322 0.6554440212013123 -0.26293125960273234
-0.15824943843019024 0.6720736430000647 -0.2673677375085285
-0.02820147804269557 0.5980062222659066 -0.2423984973078211
-0.4345387747778129 0.7452406341710168 -0.022999658017041513
-0.44362797438998536 0.8236564593465889 0.01842965353128802
-0.439590089945984 0.9356729148862071 -0.018941247037804088
-0.19815185324729434 0.792848078870705 -0.30257416208958915
-0.11617041659626604 0.812741374478842 -0.3161816802412744
-0.39602912477501184 0.7937428388868204 -0.14166683585557438
-0.3073638214504981 0.7857844439252585 -0.21642025614665694
-0.3639382570090541 0.3494524350357916 -0.1631591866297899
-0.3237024442989659 0.385739997087736 -0.15423960859231212
-0.3704742171839348 0.3641025749486231 -0.08123898399512153
-0.4084831226081759 0.2605960214550382 -0.20729154592319166
-0.42937256988530925 0.22943684311073298 -0.15712264649586005
-0.23121377250476471 0.3741151535247441 -0.22848348212176056
0.08263567878873568 0.6622823613474669 -0.28413157875608547
0.15327767221798227 0.6677801561625177 -0.24726712775615597
-0.33561247080832723 0.2500624127621133 0.19914501677003715
-0.3701093365514172 0.1229799188491984 0.25464228730513605
-0.2893255661311285 1.1676033980124942 -0.05637101268300837
-0.347891684423312 1.1336448826606391 -0.11722135731868022
-0.27489740699667964 1.1637903804268035 -0.16623135309100656
-0.1972385698687955 1.1646175818012272 -0.23547775947273025
-0.1476818847270438 1.1968408408594768 -0.2332251128845871
-0.3821886654045772 1.144428519044915 0.002283492094994566
0.18000563577094097 0.8038619854474337 -0.29313380515535714
0.10809720874565398 0.807247988931841 -0.3294920756523117
0.28235644207275024 0.6431455215464761 -0.17534398179668353
0.33800671582378905 0.6346221158667815 -0.08000309104183012
0.4289018226079002 0.7271452620817493 -0.05332093956343531
0.4477536855697454 0.7550438784228864 0.045917431099718575
0.41652840904265853 0.6459251473617675 0.042252205679469856
0.4260140706438351 0.6502919197091818 0.13272359210890627
0.4281323218170505 0.6391789908153291 0.19600091189972302
0.4635690360433292 0.7292998807048581 0.2606760955315224
0.3738436230097846 0.7914373008786003 -0.13708983680771558
0.3145757412275261 0.7964791028619684 -0.22154704356007082
0.38173525036593803 0.8944991680242487 -0.14375829432899234
0.3138232485678314 0.19411788572155023 -0.2753849759275314
0.08400215031179847 0.24366782024389833 0.40977176530846626
0.005111970935403387 0.09401134238515363 0.48996704360862564
0.04167690024377091 0.050995226149212 0.5861661425859513
0.04100865400513887 -0.020175175778206555 0.6002940590929357
0.06561969510283161 -0.10174882006175423 0.6340057238915258
0.07051911225181229 -0.13478537157500659 0.6431317032267951
0.15923599833249247 -0.10806542061958221 0.6183308272260468
0.06250295915783188 -0.2292648206718549 0.6541195354057363
0.05464512849004466 -0.3374910228814407 0.6316079937722267
0.06316300446057421 -0.4089784752689834 0.5900682460043762
0.004187369360401316 -0.4091093925387783 0.6024796491512501
-0.05322104066776712 -0.3452331949422686 0.6396391992519189
-0.15008562327632946 -0.3365913689902275 0.599638980638341
-0.17495700176492357 -0.4030058480387756 0.5558557111968093
-0.21183976668132076 -0.45399811574645943 0.5018739440866536
-0.2537500862852884 -0.38662773494548863 0.530476292140533
-0.18116704433978015 -0.248784693049667 0.614092186629611
-0.11324627473111283 -0.4836407530166882 0.4962811448675144
-0.09221806935187415 -0.49576156250865144 0.4835894427738372
-0.1739645166182195 -0.5235054237967722 0.3211803725715483
-0.2711085072026058 -0.5100023538780059 0.33339187075105803
-0.3436679706718213 -0.47067550346201126 0.29272720033771726
-0.37022361825255357 -0.4523620562195685 0.24682711366528023
-0.41085142150201304 -0.44924954391897065 0.27384254824131027
-0.42209613117443756 -0.48858362557871 0.16625690254525338
-0.42151861345438446 -0.5362735169477378 0.14241088359972467
-0.43581368866083703 -0.6095796286165527 0.10796648170139683
-0.4009749472766151 -0.6805574379607061 0.17639387612155488
-0.4708317996808551 -0.6712795415087351 0.19569400968587078
-0.532555252789675 -0.6215103519211596 0.19825520981280398
-0.5126449577816423 -0.5658420439541152 0.22119085428994723
-0.48606192728195463 -0.5539036246375304 0.2937818784050288
-0.47477828528982635 -0.5702771441555944 0.34874373646351653
-0.5188487322767594 -0.5925710428805657 0.38041540352316383
-0.5846625338289159 -0.5968082156050448 0.33718837478329156
-0.593345673321187 -0.609580436639013 0.274002307173536
-0.5543763513695206 -0.6876022448577221 0.31001110419378985
-0.5459193692674082 -0.6925931494095804 0.3239933294616759
0.15938161940604045 -0.4317314590177236 0.5464363154704738
0.2330755737533643 -0.3863567909164034 0.5239641311850692
0.16957402770925345 -0.2218324003366468 0.6251232398887332
-0.07122850764786781 -0.009669973130463944 0.6050428085796102
-0.061629714925305334 -0.10570217364996581 0.6544689845694414
-0.3018445935173474 -0.3941299682973505 0.42846279850470914
-0.3553824202069934 -0.3413580175717844 0.44163149161470294
-0.3665583765228549 -0.29318258062822933 0.4711990609564469
-0.3661345395090332 -0.26361748118295275 0.45477390034183895
-0.06072173117815027 -0.23325963764428082 0.6622280341004156
-0.10846065865358823 -0.6109858878125306 0.2851725599423156
-0.10972525986019337 -0.6340998103377342 0.1972821987665574
-0.4949849237725681 -0.6140925028945121 0.49477838654443695
0.26803049712777227 -0.248083742357533 0.564045026456697
0.1238448072404884 -0.49506440497367066 0.43049753491930765
0.08599212763620567 -0.5040846161329081 0.48237859257150206
0.06614083628701373 -0.5016208318881613 0.48848131196448097
0.21324945493276448 -0.55565728107458 0.42345126473264405
0.21390817835048592 -0.6162370773418427 0.5128138827314742
0.3062073162918235 -0.710868842818575 0.649429663022353
0.289925586161659 -0.5089645497851096 0.3445665999365298
0.37762328696258496 -0.4781394188819529 0.2346217684546763
0.4231645804165256 -0.4398076684927096 0.24260885997968773
0.20380724308923703 -0.544359802561704 0.29175837840767016
0.13812736926839464 -0.5891639224449536 0.3347653587323268
0.09333561864620808 -0.6091039750179521 0.3034026311887619
-0.5395035059551371 -0.6541341063225192 0.6083892296623417
-0.5818681557315337 -0.7223543287866515 0.6483286947822394
-0.5280350021582656 -0.6866643303650268 0.721027268532545
-0.2965499520806423 -0.2452110921264985 0.5593743126392771
-0.2659850517933161 -0.5623838485464608 0.5243435842855484
-0.3227620781359659 -0.5788715986329032 0.44222364491642013
-0.36256422704353386 -0.6421642572864468 -0.008525291542991588
-0.18593641689662815 -0.6577464956691272 -0.059812326662109117
-0.33098235289899025 -0.5856475478937431 -0.1192915656097635
-0.08825983440725611 -0.6492333994035074 -0.02306024757432934
0.42229702668494606 -0.498606552520162 0.12041790284722387
0.3629150902779572 -0.5148372141225945 0.03882166169626982
0.33141820492364005 -0.5773385253774383 -0.06362091873946751
0.4049218858525614 -0.5526388505534663 -0.04615882873099553
0.25455990536467055 -0.642175463075816 -0.04671988251786874
0.29790648378589535 -0.6547811943539823 -0.03949226663439012
0.22563644729588628 -0.6641345247144942 0.021086172108960355
0.12563883197394066 -0.6557073689895925 0.01745284598212793
0.12654984193505847 -0.6516761175347661 0.04940789632533171
0.38607857808137447 -0.6403975173970008 0.01787635052598517
0.48732443790268976 -0.486564464303467 0.03555346137813574
-0.17189529580548335 -0.10353677235948275 0.5961260094201033
0.47123986332004864 -0.3859839793646725 -0.04045634847705015
0.5150742107782496 -0.2815835372465757 -0.033071635587053505
0.5493252758591088 -0.2874322175613492 0.008186197418245333
0.6029870542589988 -0.3670611796710114 -0.00055530827862206
0.6541791840477282 -0.3642010389688907 -0.002047736101902675
0.6726259224642237 -0.3649012864691489 -0.05258127841877869
0.6610653732926333 -0.325909453835738 -0.07730479272980975
0.6230420886849323 -0.38517234748396517 -0.0975533144751739
0.512292530875256 -0.19756275416774444 0.08370457044776769
0.4635220378918239 -0.12362275798955719 0.13182392939658882
0.49184067490765626 -0.09115213652194726 0.19540466954339503
0.513493213124667 -0.2661769805487014 0.17502071596692628
0.6147531867802283 -0.3244777248503088 0.1661334332538127
0.09509427330819441 -0.6363124874819208 0.17673556773175148
0.23330820565038338 -0.7120554699620867 0.36862201145280094
0.3136372574221531 -0.34944797145304773 0.42406401038042163
0.37834578109514827 -0.33077667476419714 0.4169992905857223
0.3533699105012572 -0.26904835393966153 0.4341824914377701
0.3850940994294745 -0.2558148951266347 0.43486592743456953
-0.34414229155568 -0.6443631252649988 0.6149832032962171
-0.3089179880872692 -0.7029954040985233 0.6676673027475989
-0.24971335554418359 -0.6844377009021022 0.6667072438455979
-0.29265366935610637 -0.676809343861199 0.7472038878191283
-0.3530687510775341 -0.7536706971997216 0.619182449309353
-0.1758962637163704 -0.6571366731930172 0.5528424816858386
-0.17999733578326427 -0.682473403668288 0.4710034672695067
0.41489602967013717 -0.56737215547839 0.41988948434980844
0.4098006272481145 -0.5675411072809561 0.5220996526986826
0.48844487636921674 -0.5558376539467174 0.3152423472071242
0.5586539852266905 -0.5920346072370548 0.34901896324758086
0.5658468206951326 -0.6058243275450054 0.2973832467428128
0.5904008384172826 -0.6802639272782558 0.3085252940752554
0.531730225031732 -0.5623522945980935 0.1945577101619982
0.500507056146068 -0.6214143341806423 0.19518243493314902
0.5089714563316381 -0.6503877154075879 0.19954366245163008
0.48978609141153195 -0.6682316540656619 0.20194227622219768
0.44676342482520226 -0.6800912944719202 0.23970831934568837
0.4879605545058534 -0.6637684059320461 0.12747451626291983
0.5460486229174211 -0.730462224617999 0.45871592912613113
0.6866810407882146 -0.6599483047331585 0.4090156030845963
0.7631816143981842 -0.6651400642374552 0.4677885099386201
0.7555524588257366 -0.697703477219962 0.5138756364764336
0.7123296737754311 -0.7004966619066623 0.5091057716533132
0.7498801074584203 -0.6879730243472664 0.5640323604328246
0.7422702771383857 -0.6975169082947967 0.5901256844195113
0.7487182945137265 -0.6298524745292489 0.5728375371680839
0.7399042273641393 -0.6539108616581356 0.6369504484983608
0.6710038864372254 -0.6572136811417264 0.7159945053978816
0.6205450395528085 -0.5899209476657946 0.5519227936272688
0.45404641222504455 -0.4220457698823934 -0.18329663847911082
-0.6894214280190172 -0.6515183401504666 0.7057830580866326
-0.7175126794905131 -0.6655666117525209 0.6256549525821771
-0.7335352848781558 -0.6917252484732308 0.567889713395203
0.46380684626863555 -0.7004255546604334 0.5719292510084082
0.5185027469012913 -0.6898245546743325 0.6895258638459958
0.4986473951056847 -0.6712845024525311 0.7469308758314845
-0.4627103285284663 -0.3169143218500496 0.29348529028755777
-0.44559405400925267 -0.2424578519855347 0.2307056123695414
-0.47742757227578414 -0.12148803117854468 0.1693949406900666
-0.5044877098249401 -0.12036910703614025 0.1891568718883958
-0.5016370346161154 -0.20317505281527792 0.0876146538562046
-0.5552806661393652 -0.26738301254677366 0.060862451206233084
-0.4730398429472843 -0.21559809957341136 -0.00032730574339390195
-0.5541740051521458 -0.2617048086007833 -0.04247458167862739
-0.42590945801635005 -0.3038962504490075 0.0629284735773682
-0.4975724890435005 -0.3719870201800136 -0.0322803672080445
-0.452256346092343 -0.4363712277944976 0.0025180861095503992
-0.6168695505013784 -0.3742860496508318 -0.017912656563303292
-0.6683286810855116 -0.3702563213707156 -0.02788780515810796
-0.6785873987114557 -0.28382709741418655 -0.10114961746964803
-0.42398608736805476 -0.14327840364902386 -0.11373170289795453
-0.4650954465308317 -0.46215113251872786 -0.14172089611487393
0.34531330468163657 -0.5497300993731955 -0.23027267133115664
0.3676517844341325 -0.47867064848713164 -0.327399418380016
0.4280551185624444 -0.36946576666502956 -0.3723504992864366
0.32606020338408115 -0.3396560927090584 -0.4324980233123059
0.4641246397022408 -0.1798221973570885 -0.365949290930736
0.23232517818392706 -0.5581404089826193 -0.32715250107879734
0.1453329195571209 -0.5720331434476646 -0.37117350319296927
0.11702065000417483 -0.5860170275690997 -0.3006594221284091
0.02992593588735093 -0.6104147671695928 -0.24926298063092356
-0.02926968921840789 -0.6151546876626728 -0.2571941636995995
-0.11188483037368746 -0.5669408382705416 -0.36846929037989096
-0.1708133653881565 -0.5377232861558122 -0.38832324620696734
-0.23817748842583764 -0.549851028786845 -0.3382258723935585
-0.234226375858954 -0.43833663232476083 -0.4510937321504215
-0.30090308927443066 -0.43269397405450305 -0.4022895567432143
-0.42409767521237685 -0.356014802238267 -0.3647866941146456
-0.14123651332685516 -0.33507455957892857 -0.499110975356874
-0.3807282736746204 -0.46712440952151757 -0.2772271410352227
-0.27598317255040383 -0.03649440621867577 0.5124439096880342
-0.25437421596509435 -0.24412783627676382 -0.46177259864263126
0.6079258641608705 -0.19244277111963987 -0.12082921552650293
0.6244338148080124 -0.14640562219047812 -0.13565255018472844
0.5734402765599744 -0.05574950929515271 -0.1333282666235603
0.5872294138222858 -0.016587429004563992 -0.10331330628292346
0.22206812669564074 0.175677755840839 0.38630555678741096
0.30149225537562696 0.1760623465736368 0.2578826909370434
0.3526568867926012 0.1390170153176572 0.2554990174944487
-0.03244662030491363 -0.45177210558410785 -0.47773343640793847
0.11142271080612143 -0.4331809383015495 -0.49377376567586395
0.15251733740838214 -0.33160806670513876 -0.5134944044906251
-0.5804733799805198 -0.3680976357891438 0.18948748366196067
-0.3806789551910491 -0.09099120538936929 0.393033913390733
0.36991511037545344 -0.09064437644415568 0.4079703274107527
0.2937375548656467 -0.05423650834262684 0.4846187177581711
0.20132076723634595 0.9788202689416445 -0.2898361334184616
0.09572349193048346 0.996703326401235 -0.335711035083731
-0.30988916484571893 0.9886825005201785 -0.21415409641178929
-0.20091459927080635 0.980438846077311 -0.30954568844217245
-0.11721588714998377 0.9960533202711476 -0.31545473616149666
0.2342019596817806 -0.1762690829607605 -0.44998764070587116
0.42338849362347203 1.1300526586079216 0.07673012571560056
0.407137882711851 1.138537491721182 0.0051911712934153975
-0.5999503887424088 -0.06208948477164064 -0.13588978103122296
-0.6182976875864108 -0.06944266880120586 -0.011400898752081723
0.13355912989738328 1.1910220055441023 -0.2538432064952124
0.29473041888673146 1.167028635340773 -0.16867691357571635
-0.1757623567400488 0.15922094500759332 0.391967403487171
0.024536368551549073 0.25944385175073437 -0.3038423403156272
